ply
            format ascii 1.0
            element vertex 18875
            property float x
            property float y
            property float z
            property uchar blue
            property uchar green
            property uchar red
            end_header
-185.432398 -44.822133 135.457003 96 63 51
-185.432398 -44.822133 135.457003 96 63 51
-183.982670 8.048083 128.834808 96 62 52
-184.135997 2.503470 129.936194 70 49 44
-184.135997 2.503470 129.936194 70 49 44
-183.922231 5.739684 129.398179 88 58 52
-184.064794 -14.000075 131.540966 131 95 79
-183.544493 8.546653 129.212105 178 137 117
-183.544493 8.546653 129.212105 178 137 117
-184.917974 -40.727454 135.750175 65 52 61
-184.917974 -40.727454 135.750175 65 52 61
-184.663045 -45.732239 136.066246 172 128 116
-184.650171 -20.597811 133.593166 75 49 38
-184.415376 -43.633339 135.903895 171 129 117
-185.207033 -36.029893 136.249983 69 35 21
-185.157490 -37.434626 136.484540 71 36 20
-183.075154 8.196256 129.770195 99 66 52
-184.025609 -43.121707 136.290991 112 86 80
-182.151759 -4.628762 130.675530 124 80 66
-182.151759 -4.628762 130.675530 124 80 66
-183.693874 -19.116241 134.192944 169 126 113
-182.199275 -15.410180 132.227743 158 119 106
-182.790375 4.111219 131.278384 61 42 35
-180.181777 30.860534 125.660884 64 44 40
-180.181777 30.860534 125.660884 64 44 40
-214.388776 -43.599564 174.128270 59 33 29
-181.440639 23.565677 128.212678 184 139 126
-183.695900 -32.739380 136.624086 182 136 120
-183.114815 -19.447322 134.707546 82 50 38
-183.177078 -44.912118 137.337399 98 72 72
-183.674419 -37.510291 137.525535 161 127 113
-183.674419 -37.510291 137.525535 161 127 113
-181.270313 -2.927417 131.217933 112 73 64
-184.739208 -79.233027 143.229139 65 46 54
-182.940805 -46.253216 137.916768 102 81 82
-182.892454 -48.826513 138.435197 111 71 57
-181.396842 9.351191 131.071579 194 151 133
-183.256948 -39.169115 138.409829 57 31 20
-180.676866 20.444368 129.481804 107 57 45
-181.358504 3.732962 132.044435 181 138 119
-180.461717 21.812420 129.290807 82 32 19
-182.087696 -48.158020 138.634467 119 79 70
-180.153930 -1.913353 131.710064 170 127 112
-180.167365 -2.958579 132.025695 120 77 69
-183.555555 -60.903835 142.067075 182 137 122
-183.555555 -60.903835 142.067075 182 137 122
-183.555555 -60.903835 142.067075 182 137 122
-183.577430 -64.201647 142.692089 186 142 127
215.626240 93.232292 -358.356786 31 20 15
-180.344701 -13.684319 133.865619 123 88 83
-183.559597 -67.464137 143.277621 184 141 125
-183.559597 -67.464137 143.277621 184 141 125
-181.524909 -45.876828 138.761675 137 96 81
-181.524909 -45.876828 138.761675 137 96 81
-180.269814 -11.981600 134.173429 95 78 84
-179.545438 -0.930126 132.339406 119 82 75
-179.395139 -0.953915 132.204926 119 82 75
-213.302708 -89.113790 182.786489 142 105 93
-181.381321 -28.349048 137.693250 203 155 138
-181.381321 -28.349048 137.693250 203 155 138
-84.687710 -0.041630 16.550006 53 31 24
-179.484904 -5.633539 133.189952 169 128 111
-181.164861 -47.354016 139.540958 81 59 67
-179.416072 20.628250 130.433846 94 45 42
-181.304109 -54.720342 140.549529 97 68 70
-180.764687 -48.710161 139.656949 115 74 69
-84.510875 1.624542 16.400586 159 118 102
-179.479051 5.361634 133.201373 73 46 41
-189.992368 -99.157453 157.194722 86 48 43
-180.178332 -43.036824 139.499354 180 137 119
-180.178332 -43.036824 139.499354 180 137 119
-180.178332 -43.036824 139.499354 180 137 119
-178.914750 9.705436 132.616425 180 137 119
-180.283809 -47.964004 140.362680 196 150 135
-189.692271 -98.658818 157.528818 170 136 119
-178.318417 -3.261415 133.703017 125 84 66
-213.225245 -111.873972 188.178027 184 140 122
-153.289497 6.073409 102.064049 88 58 52
-179.968274 -46.244290 140.354896 116 77 65
-180.323863 -30.603328 139.185524 91 62 47
-181.411040 -57.310086 143.318808 212 166 146
-180.416858 -33.740705 139.843619 62 41 36
-178.803825 5.491315 134.041226 90 56 39
-178.803825 5.491315 134.041226 90 56 39
-180.442917 -37.367404 140.554476 60 35 30
-189.366031 -100.056517 158.308673 120 70 46
-178.209400 3.477285 133.688474 87 56 43
-189.266062 -101.319897 158.525586 111 62 40
-179.490888 -42.325631 140.212631 124 84 74
-178.288579 11.966323 133.399940 73 45 38
-179.240227 -18.389677 137.781250 184 141 124
-176.161790 31.750095 128.717136 150 117 105
-179.452312 -46.306282 141.287112 159 123 112
-188.875103 -101.718426 158.914328 100 60 41
-176.218140 27.315602 129.567671 156 118 104
-176.410604 14.657056 131.612051 70 44 34
-178.896928 -22.577859 139.022958 86 50 37
-187.525022 -113.274026 159.359491 107 69 61
-144.809079 -6.347103 99.107468 98 63 47
-178.653157 -44.302177 141.114187 114 74 63
-175.735641 27.855253 129.939294 102 67 59
-177.665436 5.515833 134.724772 74 49 44
-157.441163 -35.933381 113.887250 114 85 77
-179.761875 -83.769524 147.054827 109 84 79
-176.881289 -4.833068 135.160363 154 118 108
-188.637352 -100.887632 160.096848 176 132 117
-188.637352 -100.887632 160.096848 176 132 117
-187.918115 -100.398111 159.320569 181 137 119
-192.681551 -101.683521 165.559316 103 60 43
-176.643407 -5.169872 135.318327 165 124 110
-180.117381 -72.426480 147.003818 121 75 55
-180.199993 -75.908321 147.684312 124 75 56
-157.091677 -35.473606 114.310074 57 31 20
-179.961097 -70.803732 146.926415 197 151 134
-179.961097 -70.803732 146.926415 197 151 134
-187.665641 -108.456719 160.751259 32 18 13
-177.890456 -45.026565 141.878104 94 69 74
-178.333950 -30.309263 140.977550 73 50 38
-177.724993 -44.085476 141.967905 99 73 72
-177.739382 -48.308566 142.503488 179 137 121
-176.930058 -23.596251 138.903201 81 48 40
-178.196371 -37.457919 142.216265 55 33 26
-186.944497 -101.366484 160.187948 103 60 44
221.017313 57.491082 -370.872188 138 88 69
52.342516 -31.333327 -150.772393 49 37 63
-174.762368 25.763682 131.280506 52 39 57
-177.360487 -41.623557 142.061055 159 124 114
-174.248505 -58.899939 140.122688 111 64 49
-186.668098 -113.519907 162.023818 113 68 61
-186.424935 -101.917768 160.524237 99 56 41
-175.025129 1.090589 135.280693 86 67 82
-174.222636 26.461306 131.533480 143 109 95
-176.807070 -41.871887 142.309606 106 74 74
-178.208184 -57.928282 146.152818 112 66 49
-177.704179 -81.350029 148.401189 153 115 97
-173.663771 26.930586 131.836832 103 69 62
-174.121225 12.986548 134.084558 171 130 115
-173.709488 23.310059 132.562995 105 67 53
-178.042841 -72.125882 148.653901 124 75 53
-173.705077 16.065444 133.923233 108 68 56
-173.705077 16.065444 133.923233 108 68 56
-174.731827 -16.005428 138.911247 65 46 61
-174.731827 -16.005428 138.911247 65 46 61
-173.757195 8.753762 135.387409 111 71 58
-177.600932 -76.698929 149.734831 114 70 53
-174.104989 -1.740306 137.073970 103 68 59
-175.220084 -40.684125 142.922306 97 73 85
-175.626123 -50.891232 144.780064 147 102 88
-172.849751 27.117351 132.717228 98 62 57
-172.787201 19.832772 134.029102 100 66 64
-172.434390 24.161842 133.399379 152 117 99
-172.642887 12.530202 135.254288 104 68 63
-172.330272 19.337997 134.385884 149 116 104
-173.096299 -3.937818 138.336372 170 129 114
-174.694026 -53.739607 146.002424 106 73 76
-172.380066 9.589241 136.090720 162 125 109
-172.452128 4.756065 137.221146 157 122 107
-171.789122 19.777392 134.728086 96 64 56
323.640180 162.282705 -530.938196 42 23 19
-171.836269 12.587875 136.230373 101 69 58
-171.978498 2.817767 137.889457 110 72 62
-171.885121 5.268967 137.592685 102 67 58
-171.293902 -7.969657 140.507483 168 127 114
-170.804012 -7.912868 140.014362 168 127 114
-173.022819 -78.246415 151.535356 148 110 97
-170.905471 -10.152392 141.198337 97 60 52
-170.685029 -12.037907 141.746211 122 81 67
-169.463694 23.946397 136.002231 102 67 67
-169.139528 32.813293 134.669769 151 117 106
-169.159818 28.313598 135.383415 160 124 106
-169.515669 2.068336 140.170717 106 71 65
-169.737244 -9.312966 141.852975 112 112 115
-169.164646 6.460036 139.464140 167 130 110
-168.666482 21.554078 137.199628 102 65 56
-169.441414 -3.958543 141.254008 107 63 49
-169.070065 1.536499 140.475142 169 132 118
-169.052255 -0.300032 140.770245 163 127 113
-168.510282 16.727963 138.154054 100 64 57
-216.535139 -133.761382 221.010685 113 71 69
-168.494153 9.407500 139.478409 102 68 61
-168.586695 2.107036 140.907609 106 71 61
-168.638611 -0.824854 141.347754 96 66 61
-168.638611 -0.824854 141.347754 96 66 61
-168.777466 -9.032715 143.108332 127 123 125
-168.368578 -11.816705 143.720508 91 61 61
-169.941163 -81.262994 155.057418 133 97 87
-169.569349 -72.752947 153.846419 101 105 113
-166.314471 28.101987 138.176847 99 64 62
-166.152108 20.805250 139.414787 99 66 60
-165.854943 25.152019 138.854432 152 117 101
-165.748227 27.617031 138.466215 155 121 106
-165.877867 17.919235 140.169513 163 126 108
-166.168118 6.232064 142.032754 107 71 62
-165.784216 20.374526 139.853168 151 118 104
-165.765512 13.050315 141.169024 162 126 112
-166.550696 -5.411075 144.702804 171 128 113
-165.881729 3.272362 142.961979 167 130 112
-168.252230 -79.232019 156.216002 89 57 53
-168.137598 -77.335101 155.935371 108 67 52
-168.137598 -77.335101 155.935371 108 67 52
-165.346873 18.492161 140.516210 105 68 58
-165.203512 20.854579 140.143526 94 61 54
-166.601932 -15.534972 146.578252 123 89 79
-166.601932 -15.534972 146.578252 123 89 79
-166.601932 -15.534972 146.578252 123 89 79
-167.911422 -75.013262 155.706692 102 111 118
-165.336525 11.260688 141.913450 108 72 63
-165.236890 13.549682 141.560590 98 67 61
-166.609073 -31.785563 149.067461 113 78 71
-164.917040 17.938314 140.846682 154 120 109
-167.560160 -79.088569 156.821096 150 114 101
-167.492878 -81.152880 157.098174 133 98 88
-167.492878 -81.152880 157.098174 133 98 88
-164.888036 3.292070 143.590903 158 123 106
-165.331173 -89.303809 156.825161 113 81 67
-165.331173 -89.303809 156.825161 113 81 67
-163.032138 34.306580 139.579034 86 61 62
-162.733877 24.874915 141.166377 97 63 60
-162.645888 29.335359 140.918648 155 117 102
-162.877595 10.389526 144.076586 102 68 61
-162.565339 14.747025 143.558645 166 124 110
-162.087691 29.828551 141.248798 101 65 54
-162.489998 9.904792 144.535375 159 124 110
-162.608552 2.538035 146.014488 163 127 109
-161.871588 24.943285 142.174149 91 63 55
-162.044263 15.267782 143.973053 112 74 61
-161.593080 29.329175 141.640258 149 115 101
-161.930120 10.410633 144.909072 98 66 57
-162.863278 -29.945162 151.717186 164 126 115
-162.967789 -32.615271 152.240324 162 126 118
-162.938750 -71.029502 158.949244 72 72 84
-162.910295 -76.305795 160.384893 176 132 118
-161.633492 -43.253598 155.256653 119 85 79
-160.719264 -8.971253 150.063241 71 74 90
-160.719264 -8.971253 150.063241 71 74 90
-98.776382 -68.935823 65.895516 254 254 253
-159.503269 14.524867 146.043098 104 69 65
-159.340167 26.157746 144.316757 151 114 100
-159.248745 18.958570 145.503867 157 121 103
-159.367239 4.277759 148.382485 160 124 106
-158.774400 26.664153 144.603324 97 61 55
-158.692217 29.119226 144.319510 86 56 50
-158.726192 19.537082 145.847237 103 66 57
-158.615315 21.850403 145.478916 96 62 58
-158.501208 26.206258 145.132947 146 112 96
-158.634114 14.545950 146.914005 102 69 62
-158.867168 4.804800 148.761261 108 72 61
-158.160913 18.927756 146.029162 153 119 107
-158.556199 4.306667 149.312234 155 123 107
-158.641362 -21.970037 154.036868 159 123 110
-157.297599 25.758469 145.993376 94 63 57
-157.290268 22.168311 146.710408 97 67 66
-157.290268 22.168311 146.710408 97 67 66
-157.265294 18.586628 147.369993 99 67 67
-157.503283 11.210500 148.809576 94 63 58
-158.542395 -36.699444 156.779206 185 138 123
-157.157457 0.159400 151.123834 126 94 79
-84.506458 -8.008856 40.193370 101 68 56
-156.903803 20.273788 148.767781 115 90 93
-155.497956 30.847540 146.737230 95 62 53
-84.387594 -14.232974 41.843316 70 50 61
-155.314696 5.409385 152.240372 69 51 61
-155.726886 -40.348333 159.555626 102 67 54
171.272111 -56.888324 -356.840396 134 106 92
171.272111 -56.888324 -356.840396 134 106 92
-55.410093 -22.466524 -0.995295 159 120 105
-154.569745 -41.171661 160.440838 182 138 121
-154.467869 9.132109 153.712034 78 49 39
-154.141021 23.967001 151.412666 160 126 108
-155.070293 -35.300094 161.353040 66 53 48
-154.857028 -74.498093 166.907132 69 52 61
-154.857028 -74.498093 166.907132 69 52 61
-153.301764 1.061219 154.232049 119 74 63
-153.301764 1.061219 154.232049 119 74 63
-79.488981 -5.837790 53.488499 53 30 31
-154.776180 -58.039135 165.509188 122 71 53
-153.972578 -77.544570 167.170024 145 105 91
-154.950798 -68.503982 167.640924 119 74 57
-154.949641 -71.839261 168.182981 118 73 57
-178.547633 -22.083561 199.483263 180 141 124
-52.416062 -25.368571 -0.659923 161 115 96
-153.510678 -17.134708 159.200835 73 39 32
-153.067076 8.702682 155.168319 74 49 38
-154.229903 -73.332155 168.877256 116 71 59
-153.874719 -66.757679 168.103719 196 151 134
-153.072047 -15.448511 159.569454 85 56 45
-153.772211 -70.401591 168.665409 177 136 120
-152.384555 -41.258675 162.501860 177 136 123
-172.821522 -61.805439 199.007440 121 71 55
-153.444898 -69.857407 168.999076 124 74 56
-160.782027 -24.659370 174.802589 92 53 36
-151.799762 -43.579102 163.212395 153 117 106
-151.305485 -0.195417 156.443405 162 125 109
-151.163971 -0.299559 156.288505 162 125 109
-151.505351 -38.080522 162.781978 116 78 69
-151.505351 -38.080522 162.781978 116 78 69
-150.868344 2.621715 156.140339 174 130 116
-151.282561 -44.287503 163.908565 118 77 71
-151.323295 18.346059 155.039573 87 38 26
-151.719844 -27.940756 162.677169 208 165 147
-150.927210 -79.211527 169.806600 50 33 38
-150.829315 12.524892 156.433117 77 50 40
-151.597154 -52.775770 167.333341 217 170 152
-151.597154 -52.775770 167.333341 217 170 152
-151.572585 -66.421288 169.837129 209 163 144
-150.320256 -41.798747 164.195800 131 90 77
206.805396 9.179716 -441.006470 147 99 81
-151.534247 -72.178173 170.828879 203 155 142
207.539773 14.373592 -443.279886 65 26 25
-150.717938 -15.096618 161.500883 85 56 42
-149.615049 -0.122718 157.582891 117 80 68
-149.992394 -44.208148 164.926136 126 84 71
-124.641883 -4.302953 123.226726 89 55 45
-150.230026 10.945091 157.290578 80 50 45
-83.902246 9.546497 46.112120 102 67 59
-149.857116 -37.774462 164.048016 113 77 69
-51.983851 -2.702894 -5.732088 161 123 101
-150.176561 -78.897333 170.918262 113 83 83
-150.559509 -34.483260 165.130901 68 53 48
-149.803662 10.426126 157.746994 148 111 96
-149.803662 10.426126 157.746994 148 111 96
-149.240363 -40.834096 164.960063 121 79 70
208.389878 63.354957 -455.884075 147 99 77
-149.495173 7.883109 158.363926 84 55 41
-53.447974 -3.913651 -2.523263 57 34 23
-53.447974 -3.913651 -2.523263 57 34 23
205.348539 12.568490 -444.927979 153 110 90
-148.378766 -1.135849 158.649147 82 51 43
-148.594320 27.031735 155.157506 25 21 16
-148.693788 -41.743207 165.604985 95 74 82
-66.021073 -8.199999 25.626010 42 25 22
-148.767781 15.910816 157.511508 77 49 39
-148.869312 12.908687 158.202255 75 50 39
-66.538799 -6.732222 40.396726 51 25 16
-149.497616 -33.838829 166.889334 36 19 20
37.150702 -25.938803 -154.032326 161 124 105
-186.351299 -130.233943 245.547271 254 255 254
-120.593727 -19.159338 116.901350 60 36 32
-144.457757 24.072303 157.607758 88 58 54
-144.834292 -50.057214 170.278072 83 56 65
-143.857682 5.961935 161.007643 78 51 48
-143.857682 5.961935 161.007643 78 51 48
-143.652928 -15.550728 164.546156 167 127 116
-142.551196 5.884144 160.479546 69 47 48
-141.155541 -26.039708 169.783962 98 70 65
-140.600646 -29.111999 169.912255 124 129 130
-140.600646 -29.111999 169.912255 124 129 130
-140.199828 -32.911620 170.762968 46 36 40
-140.242434 -29.167420 170.288086 102 114 117
-139.455962 -10.922159 165.962780 69 51 48
-140.135920 -31.448948 170.633233 96 107 114
-134.932160 -0.306013 156.477678 25 29 35
-138.945973 -85.158610 178.307939 114 80 66
-139.314175 -71.792877 179.391444 69 69 81
-132.918358 -9.027340 157.512820 136 107 95
-137.873709 -36.977515 173.970282 108 122 126
-137.261856 -39.048180 174.650645 69 42 40
-137.261856 -39.048180 174.650645 69 42 40
-137.153065 -35.697889 174.567103 65 53 58
-136.878765 -30.483413 173.172045 43 48 57
-135.808098 -31.212896 173.675275 109 105 108
-135.966551 -74.422342 183.116078 168 126 111
-135.254931 -45.920822 176.734519 75 49 59
-126.537025 -2.529851 152.440572 76 87 98
-385.988688 -283.456302 722.018385 255 255 255
-125.133216 -2.447555 152.201092 78 91 101
-133.141577 -29.175082 175.349629 99 112 118
-143.210101 -95.532566 208.562422 31 20 15
-131.455338 -34.256861 174.388659 115 107 113
-132.537711 -38.718304 178.938091 101 62 52
-131.083870 -43.950269 180.106282 53 39 39
-130.486476 -34.779465 177.411318 56 43 46
-130.836344 -37.108728 179.228783 50 50 62
-131.692195 -25.731096 179.474926 167 130 114
-131.340516 -24.700248 179.729903 175 136 122
-135.871053 -105.228508 204.245329 117 77 73
-134.778583 -106.347072 204.943395 254 254 254
-130.176616 -22.399132 179.835653 147 104 93
-129.094613 -34.795275 180.076838 73 59 61
-129.632246 -14.623240 179.252255 66 30 22
-129.632246 -14.623240 179.252255 66 30 22
-127.995789 -7.710906 174.470401 120 85 76
-127.623618 -10.912491 174.390471 103 73 68
-133.704853 -90.275323 203.336167 161 118 99
141.173470 47.383621 -411.815643 193 147 130
-128.602624 -48.862171 184.852588 193 148 134
-129.131377 -16.670418 180.046093 159 117 104
-129.420364 -15.506068 180.388498 159 117 104
-128.053856 -32.214621 181.188047 96 84 86
-54.929477 -45.348310 26.705873 32 18 13
-127.833736 -37.301892 182.381868 99 108 112
-127.983379 -49.597564 185.317314 140 90 69
-126.663756 -6.771693 174.569190 203 153 134
-128.223753 -15.314437 180.455875 208 161 143
-132.569098 -90.928739 204.765606 123 75 59
-128.109062 -13.976009 180.427229 208 161 140
-54.491866 -47.069928 27.066219 113 68 61
-127.624345 -51.194495 186.680019 140 90 68
-126.154602 -46.901381 183.669579 127 130 133
-127.530432 -22.134054 182.394695 152 109 95
-126.004124 -45.145065 183.726180 96 105 110
-126.298511 -39.495960 183.755159 46 46 57
-126.094997 -33.331263 182.634413 56 44 46
-126.739061 -68.661135 191.310334 204 160 142
-126.606226 -24.743427 182.697725 132 93 84
-125.858104 -43.066713 184.899390 120 121 123
-125.713372 -36.065507 184.247971 167 126 112
-125.429058 -32.670262 183.129859 112 85 77
-125.429058 -32.670262 183.129859 112 85 77
-117.490697 -7.084747 160.595870 203 153 134
-124.252760 -48.870662 184.423828 175 146 141
-74.573600 -36.880076 71.759868 127 74 54
-126.314878 -13.689837 182.498384 210 162 143
-124.364507 -47.237724 184.854853 196 156 135
-124.992585 -42.526701 185.736716 59 60 72
-126.079571 -19.611545 183.617222 209 161 141
-125.976217 -28.459209 185.355151 43 26 26
-126.084328 -16.074339 183.294356 207 160 139
-123.916495 -48.278892 185.003531 117 83 103
-36.492452 -34.466228 -11.877687 34 23 23
-125.223696 -16.022713 183.614039 179 139 121
-123.781621 -40.082702 185.393322 61 61 63
-125.039148 -19.472176 184.283888 58 32 26
-124.669254 -27.741027 185.843503 56 25 23
-123.004699 -45.485038 186.158371 90 96 102
-124.286938 -17.340277 183.570349 69 33 31
-124.739015 -13.791613 183.806765 63 31 26
-124.134409 -12.435891 182.986224 64 52 66
-123.663187 -21.411543 185.319674 142 99 93
-123.396993 -15.534489 183.873975 69 31 31
-122.136211 -46.816871 188.246441 92 70 85
-123.448849 -18.498862 185.449004 52 32 30
-123.413050 -15.950470 184.966493 59 36 34
-123.386323 -22.860724 186.831450 196 155 136
-122.101974 -34.500512 186.377847 71 70 75
-122.697699 -25.324759 187.546754 59 24 25
-122.697699 -25.324759 187.546754 59 24 25
-121.566725 -39.608067 187.929511 95 65 57
-204.335356 -166.797185 408.916092 255 255 255
-112.026536 -3.683821 160.540545 50 44 64
-120.043004 -44.476160 188.252521 75 50 62
-120.508480 -37.243566 188.243985 49 48 54
-119.668806 -34.064957 188.551867 101 120 126
-119.668806 -34.064957 188.551867 101 120 126
-118.553972 -11.004893 181.947660 58 53 77
-118.944979 -38.217059 189.389002 62 60 67
-117.514253 -68.853545 195.606267 152 116 102
-117.849791 -41.675559 190.929770 175 137 125
-124.497664 -7.646821 199.696267 156 122 108
-118.204761 -27.800453 188.888490 40 44 52
-117.427158 -39.365929 190.151072 208 162 145
-117.087305 -43.218112 190.959704 182 145 130
-115.917289 -7.451885 182.111692 102 74 71
-116.678572 -27.684236 188.832712 42 46 54
-116.643214 -33.637857 190.851331 85 95 102
-115.741313 -5.984843 182.631302 101 74 71
-116.045189 -72.965026 199.592793 149 112 98
-108.665776 -5.266332 166.851532 161 126 113
-114.730644 -7.951123 182.897902 156 122 108
-115.447879 -39.504659 193.128586 79 53 65
-115.447879 -39.504659 193.128586 79 53 65
-115.309906 -32.997444 192.488372 133 103 92
-113.229215 -38.697678 195.696938 80 66 68
-112.087440 -30.984566 192.393649 109 98 107
-110.716903 -68.642604 203.379297 110 69 58
-110.885394 -60.629416 202.103209 94 85 95
-111.382079 -22.764397 194.444358 118 115 114
-110.977709 -28.408220 195.912790 70 52 50
-111.059308 -21.586248 194.786942 97 72 68
-109.933209 -61.675698 202.987909 166 127 114
-109.933209 -61.675698 202.987909 166 127 114
-103.349531 2.142712 170.980632 64 75 81
-103.132415 0.974779 171.232116 69 80 89
-55.490482 7.110653 45.780259 120 91 79
-105.389166 -59.603882 208.501720 195 151 133
-105.659533 -47.149250 206.596804 135 85 64
-105.429399 -19.081788 201.238823 71 46 38
-103.897703 -32.870367 202.717280 116 89 92
-29.683796 -20.686571 -15.409108 161 115 96
-103.663301 -34.028915 203.282404 107 82 89
-103.663301 -34.028915 203.282404 107 82 89
-103.184283 -66.657013 211.326337 94 69 70
-103.236914 -64.149076 211.042547 143 97 76
-103.450799 -30.882594 203.057671 183 136 122
-104.656875 -6.277756 200.168610 197 152 136
-104.021347 -23.706470 203.220940 135 87 69
-97.628629 -0.781577 179.456460 137 107 100
-102.560818 -34.600753 204.579997 157 124 114
-102.389264 -35.304335 204.770970 96 67 74
-103.040266 7.335028 196.118176 156 120 104
-102.117598 -30.528477 203.797412 131 89 79
-46.389019 -26.743019 34.706512 217 170 152
-101.783168 -36.709672 204.860425 130 87 75
-45.646682 -46.412665 39.154649 102 66 61
-102.034044 -20.275484 203.948116 205 162 142
64.941519 10.373934 -315.921736 178 138 126
-101.184452 -26.464590 205.174279 65 26 25
-100.652575 -36.579439 206.621909 130 85 75
-98.667264 -68.750960 214.074254 115 78 66
-98.667264 -68.750960 214.074254 115 78 66
-90.140259 -13.016714 173.029077 94 57 44
-15.670179 -13.033083 -10.350279 134 106 92
-99.777144 -19.959696 205.481362 192 148 130
-17.910379 -12.656160 -4.720584 134 106 92
-51.532722 8.969426 45.361617 129 96 79
-99.921083 -5.679263 203.484178 194 150 132
-98.110759 -64.756244 215.811682 169 126 108
-95.268714 -77.268529 210.529923 130 95 72
-99.158800 8.215307 199.319184 119 76 65
-98.674446 9.561880 199.547172 122 79 67
-50.798261 9.648082 45.852706 20 10 8
-97.191417 -30.364442 208.459759 180 141 123
-93.125069 -76.927066 212.396169 119 90 67
-96.383393 -29.658011 208.991838 183 141 125
-110.785329 -106.608605 280.407238 153 115 97
-95.516443 -40.523097 211.522484 153 108 95
-96.173656 -3.748496 204.833603 79 59 72
-96.011889 13.334313 201.023126 82 63 79
-93.036854 -64.982086 216.767859 148 114 100
-95.159328 10.355708 202.041650 96 64 54
-93.880481 -28.653380 210.810590 187 139 122
-95.017326 11.670848 202.621269 175 132 113
-94.108981 13.846652 202.253485 113 72 63
-93.847322 14.572476 202.895570 162 125 108
-48.479697 13.467686 47.570956 60 67 27
-48.479697 13.467686 47.570956 60 67 27
-91.732448 1.963880 206.732059 87 79 88
-89.400578 -68.778020 222.279334 139 103 89
-90.682530 -28.166795 213.591170 122 86 77
-88.927102 -59.920853 220.720363 76 75 88
-90.127248 11.448123 206.754541 95 63 56
-89.465344 12.158934 206.657720 155 121 104
-88.837177 14.558887 206.056404 111 70 65
-86.469901 -1.112923 216.518950 130 95 85
-84.772468 1.981465 212.968445 137 112 110
-82.130510 -67.845166 228.432226 122 92 79
-84.298450 2.348712 213.645291 135 121 121
-81.576848 -56.618226 226.775265 78 62 70
-83.706486 3.285125 213.449478 45 39 56
-83.843434 4.416683 213.833928 126 120 124
-83.468950 12.498195 211.955523 89 61 54
-83.468950 12.498195 211.955523 89 61 54
-45.235497 7.801756 56.075376 173 139 120
-82.787472 5.566181 213.840556 110 71 66
-82.925159 13.289157 212.087035 159 124 106
-82.925159 13.289157 212.087035 159 124 106
-82.925159 13.289157 212.087035 159 124 106
-82.771075 9.382976 213.149691 102 59 52
-82.950294 14.954469 211.797810 160 122 108
-82.216686 6.076952 214.360356 169 129 110
-80.340898 9.776253 215.228033 104 67 54
-80.335981 9.736054 215.227866 104 67 54
-77.400458 -40.249437 226.692939 95 63 69
-77.400458 -40.249437 226.692939 95 63 69
-79.501528 16.754757 214.260578 164 125 110
-77.207816 -1.365103 219.409704 76 54 63
-77.207816 -1.365103 219.409704 76 54 63
-77.528888 11.231943 217.161298 116 72 65
-76.829404 16.205090 216.509247 90 65 77
-74.841362 -27.594543 226.762223 108 79 82
-73.883027 -53.644335 234.612274 140 90 70
-75.099832 -16.348140 226.771450 185 141 123
-72.662920 -61.210614 236.747861 190 146 123
-36.915073 -3.437354 60.176545 134 106 92
-72.703791 -32.697558 230.242181 119 75 65
-42.614135 -37.910485 86.106282 143 98 76
-74.131691 -3.373894 225.256419 78 48 33
-71.454811 -53.193361 236.142516 141 90 69
-45.415297 10.919289 78.651482 59 31 37
-24.937634 -17.782100 -7.169050 117 75 53
-71.975189 -31.862804 230.422783 186 142 122
-71.975189 -31.862804 230.422783 186 142 122
-72.080225 -27.876079 229.262090 146 101 88
-72.932327 -12.292773 227.512646 199 152 131
-71.602398 -30.131805 230.297709 176 134 117
-71.151108 -26.208031 229.842067 119 80 70
-70.675552 -31.528127 231.587219 143 105 92
-72.751564 15.854242 220.634103 106 68 64
-69.283235 -52.978456 237.339640 141 91 70
-71.984249 13.896058 221.674585 121 77 69
-70.614445 -15.859012 229.797220 174 129 111
-71.146077 14.296384 222.342181 110 70 63
-67.924625 -28.114924 233.090758 177 132 117
-69.928771 12.837510 223.682046 112 68 61
-69.127315 -8.089497 231.252551 154 116 93
-69.478428 14.219400 223.857903 118 73 60
-66.084856 -38.634756 236.486316 84 59 71
-63.166583 -60.239297 241.006207 145 109 97
-40.006599 0.189083 81.662989 96 64 54
-61.055589 -64.683139 245.539260 141 101 89
-66.840512 42.607120 221.907663 49 37 63
-66.840512 42.607120 221.907663 49 37 63
-64.897358 18.294188 226.746392 112 71 66
-65.082580 25.544995 224.724722 108 67 63
-64.897978 21.967258 225.893283 106 68 64
-64.897978 21.967258 225.893283 106 68 64
-65.287280 29.227558 224.352503 105 66 59
-66.122264 43.324682 221.579409 139 104 89
-65.243804 32.837978 223.571992 105 69 65
-65.209508 40.129134 222.371578 96 63 59
-65.220779 43.759510 221.587491 93 59 55
-63.848430 18.420821 228.065181 106 70 65
-63.207471 25.388536 227.114415 155 119 103
-63.016748 22.948286 227.517676 157 120 101
-64.312142 44.676852 222.908235 148 112 94
-58.541936 -53.661084 245.789647 55 50 66
-57.667869 -59.655780 247.667718 57 54 64
-62.371284 33.079588 224.699473 100 68 64
-62.991941 44.875449 223.361731 145 111 92
-63.196355 49.175352 222.714686 141 107 92
-62.608176 40.513167 224.297023 95 62 59
-66.321409 -109.172285 342.722750 100 59 51
-61.089897 26.992032 229.183292 155 119 100
-60.667825 22.620225 230.187798 102 67 62
-60.712701 30.002698 228.835106 103 73 67
-59.777486 19.812275 230.983520 159 123 103
-60.707843 37.141719 227.239394 96 63 57
-61.050576 41.605589 226.812029 143 106 87
-54.582095 -46.377295 247.666669 159 119 108
-58.111984 12.054867 237.454391 164 121 105
-52.550358 -59.627265 251.720572 48 31 21
-52.550358 -59.627265 251.720572 48 31 21
-57.345885 26.833242 232.286119 101 65 56
-57.357979 34.135669 230.984521 99 67 62
-56.070799 19.624573 233.670616 100 65 57
-56.471330 31.294516 231.680083 155 117 97
-56.148094 27.052397 232.763982 103 68 63
-50.250876 -58.649594 253.726339 68 56 68
-50.250876 -58.649594 253.726339 68 56 68
-49.929404 -61.356437 253.493237 125 89 75
-56.063688 34.232831 231.083965 98 66 61
-54.633337 10.320000 237.562132 100 63 53
-47.976506 -68.634039 246.293044 98 73 55
-56.417280 45.860827 228.765297 146 111 92
-56.058878 41.537812 229.987097 94 60 54
-54.474205 20.666882 236.419487 149 114 98
-49.479204 -52.355576 253.034306 74 61 75
-49.479204 -52.355576 253.034306 74 61 75
-54.238874 54.126358 212.773132 141 117 96
-53.360659 30.492684 234.741211 115 85 74
-52.528971 20.002604 236.941910 45 28 26
-52.528971 20.002604 236.941910 45 28 26
-53.361195 35.514754 233.890843 125 91 76
-52.461767 23.720713 236.315870 45 29 25
-52.461767 23.720713 236.315870 45 29 25
-53.672522 46.358132 231.674385 135 99 86
-52.481592 30.860490 235.062909 44 30 24
-52.481592 30.860490 235.062909 44 30 24
-52.378553 31.949681 234.065533 114 86 61
-45.557728 27.949822 194.712090 121 88 74
-52.500761 33.180705 234.430313 47 27 23
-51.864332 54.531729 213.909626 62 39 40
-52.427387 36.664474 233.942318 43 27 20
-46.103349 -58.053291 257.299471 56 51 59
-52.512199 39.729071 233.200550 44 27 25
-52.512199 39.729071 233.200550 44 27 25
-52.505606 41.868061 232.954526 41 28 24
-52.505606 41.868061 232.954526 41 28 24
-51.278752 24.782957 236.721945 142 107 88
-51.382828 35.505462 234.138632 133 99 80
-51.167959 32.076752 235.907531 145 109 91
-51.281339 39.304194 234.421349 132 97 81
-51.331323 42.789635 232.847619 131 97 76
-44.234315 -90.164715 289.679146 101 61 50
-49.396226 20.707744 239.707327 101 64 57
-50.646037 42.391539 234.980845 89 61 57
-43.989065 -54.281533 258.660936 92 60 55
-49.790764 39.452663 235.486221 147 114 93
-50.611460 52.586132 231.525373 103 91 104
-42.615110 -90.911543 290.297580 254 250 249
-49.982962 51.143402 233.762884 140 106 90
-41.564700 -78.031480 281.238699 148 110 92
-46.472377 21.792752 241.860294 152 116 100
-39.643708 -87.454975 280.686998 79 32 18
-40.122986 -84.909946 283.561373 35 17 16
-39.436170 -86.642224 279.034877 52 28 20
-47.516119 39.295572 238.883996 93 62 58
-46.063149 24.816957 241.338658 102 68 62
-47.452071 46.603304 237.366080 89 60 55
-44.274816 9.333634 246.867800 79 60 60
-46.200886 46.833780 238.173008 87 60 55
-43.063772 15.372124 246.543574 97 58 49
-36.914757 -62.090772 266.988230 43 30 36
-44.120178 36.269701 242.475057 92 61 54
-44.493118 47.773951 239.666629 142 109 93
-44.050497 43.450588 240.776205 85 59 54
-37.465572 -35.589629 263.621640 172 129 115
-43.166178 47.895122 240.068817 145 108 89
0.408572 -12.033349 -29.533124 26 20 21
-41.157743 22.106837 247.564936 104 68 60
-34.203291 32.077190 146.842539 138 103 89
-0.169036 -11.657219 -24.982773 26 20 21
-25.283837 0.245149 73.305643 107 71 64
-39.050624 4.410702 250.752449 84 60 67
-40.943781 29.537952 246.684599 98 66 58
-40.943781 29.537952 246.684599 98 66 58
-24.861372 -0.684630 73.122787 116 72 65
-36.188269 -26.848203 259.941912 116 76 67
-35.003066 -87.528998 323.206091 153 116 110
-35.003066 -87.528998 323.206091 153 116 110
-41.106486 55.503291 222.748494 59 45 51
-38.144341 0.809943 255.156326 29 16 14
-40.763122 36.774409 244.951367 93 60 53
-40.783149 40.445760 244.482017 97 62 53
-40.783846 44.050923 243.742061 90 57 52
-37.296081 -0.175355 256.625938 150 118 97
-36.396828 -11.874948 259.976840 69 41 28
-17.510816 -4.542938 -17.890200 96 60 55
-39.885873 54.344964 222.232938 146 108 92
-34.889457 -20.536257 260.207081 117 74 69
-34.118441 -26.099572 262.357426 171 128 108
-36.347494 1.157822 257.480264 34 20 17
-38.843477 55.450523 222.063661 61 41 42
-39.282161 46.723419 243.121195 44 31 49
-31.979993 -47.280830 270.550632 45 23 16
-31.979993 -47.280830 270.550632 45 23 16
-37.760061 47.913852 222.924852 90 60 55
-21.758454 -19.207908 155.953240 198 150 129
-32.294056 -42.380130 272.385573 61 33 28
-26.176682 -21.545663 214.472103 73 44 33
-27.715954 -20.483527 227.942109 73 44 33
-18.403408 -23.807050 67.764521 65 47 53
-30.423021 -56.388110 271.986747 54 36 48
-18.735932 -18.751796 34.321898 112 70 62
-37.030393 56.145346 221.673584 139 115 105
-37.030393 56.145346 221.673584 139 115 105
-37.247491 44.420817 248.072910 102 79 64
-20.741054 -20.032668 146.969223 155 116 101
-34.936863 21.866541 252.370882 101 65 59
-34.936863 21.866541 252.370882 101 65 59
-30.138722 -22.346076 265.283179 165 122 105
-29.199097 -21.301197 265.820360 90 58 48
-18.900247 -4.602572 31.876075 119 76 65
-18.900247 -4.602572 31.876075 119 76 65
-21.628429 3.257312 76.384920 79 52 45
-25.841093 -48.735222 273.593950 67 58 69
-23.737483 -74.257559 287.264419 147 117 97
-34.059647 53.485972 247.229457 44 30 26
-20.451957 -105.492771 288.552165 158 100 74
-31.922895 35.600606 255.566478 83 56 40
-31.121838 32.579049 256.520772 161 124 105
-16.805387 -111.324942 288.193345 184 149 125
-20.242734 -72.208726 286.652851 179 131 115
-26.986435 24.248965 258.193994 97 62 57
-26.986435 24.248965 258.193994 97 62 57
-15.285812 -105.746245 286.272454 121 79 46
-20.330913 -50.217527 277.926302 52 35 33
-20.330913 -50.217527 277.926302 52 35 33
-27.252150 31.510717 256.981373 97 60 56
-27.252150 31.510717 256.981373 97 60 56
-27.334338 38.657397 255.432749 90 59 56
-13.080540 -109.326267 283.032560 143 90 58
-23.038591 24.861680 261.854577 73 49 45
-13.253251 -64.558357 274.427843 153 127 123
-13.514364 -48.577681 271.331835 143 119 115
-11.436905 -70.821595 277.122140 161 125 113
-7.840993 -105.858266 282.647300 112 70 42
-10.506646 -68.718648 276.389027 86 44 35
-10.516109 -66.651833 275.984001 94 47 36
-9.968821 -72.004920 275.819230 110 80 73
-19.577987 28.914854 263.515520 79 50 46
-10.522057 -64.507842 275.554872 94 48 38
-6.227941 -105.964816 282.466578 105 65 39
-11.265723 -49.319598 272.816896 165 127 114
-8.669702 -71.295345 276.663733 81 46 31
-8.028118 -72.909164 275.724530 72 50 52
-8.719102 -65.003395 275.531816 93 50 36
-9.822227 -51.817441 272.288442 100 72 68
-9.822227 -51.817441 272.288442 100 72 68
-13.508072 -9.805588 263.876438 129 107 104
-9.537640 -49.655402 272.579432 159 121 99
-9.313574 -36.880383 233.728194 165 127 114
-6.910077 -71.174181 276.450801 142 113 113
-9.797428 -33.122808 268.483186 93 66 64
-9.797428 -33.122808 268.483186 93 66 64
-8.660764 -44.654590 271.713853 89 45 30
-9.511600 -32.151690 269.316030 132 90 69
-9.523684 -30.097219 268.899369 138 99 77
-9.538224 -29.004395 268.679404 164 124 104
-5.272744 -72.297084 276.667404 86 41 35
-5.619520 -24.017642 158.308876 165 127 114
-5.279350 -70.223290 276.274371 89 40 35
-8.755500 -29.127529 325.045061 140 102 79
-8.635507 -32.427615 269.374466 78 40 28
-5.291957 -65.986699 275.470018 91 47 37
-14.360657 27.628508 257.412601 87 57 51
-7.185381 -37.771159 276.338291 130 105 106
-4.185376 -73.756564 276.021910 108 79 73
-8.656530 -25.991690 268.175626 81 40 27
-10.411771 -7.415305 264.724231 41 16 17
-6.100846 -49.855420 272.392893 163 127 113
-14.360288 34.947932 255.796266 87 58 52
-9.600680 -13.231853 265.787292 113 84 71
-6.022310 -48.715326 272.204995 169 132 116
-9.486996 -12.254057 265.631390 105 79 58
-9.481081 -11.079727 265.266657 152 117 95
-7.754873 -27.382198 268.497086 149 118 105
-2.700303 -38.665316 162.164879 142 113 113
-3.745320 -52.020746 230.220532 92 46 38
-11.186753 13.360238 261.397076 153 116 101
-11.186753 13.360238 261.397076 153 116 101
-6.923606 -27.950352 268.126583 130 105 106
-6.090203 -33.514765 269.524455 144 109 99
-2.607743 -67.854989 275.994587 162 130 113
-8.609838 -5.610183 264.379263 34 17 12
-4.193310 -48.839280 269.389844 144 100 79
-11.661150 26.653701 257.727814 63 51 57
-11.661150 26.653701 257.727814 63 51 57
-10.365087 14.480169 260.947824 48 24 22
-6.010251 -28.207693 268.401527 160 120 108
-8.723503 9.957535 318.584585 111 83 62
-8.723503 9.957535 318.584585 111 83 62
-4.385223 -36.117536 276.423216 172 132 113
-3.392597 -50.415474 272.309852 88 49 36
-8.590464 9.325785 261.486745 54 27 24
-4.298371 -32.773691 269.084120 160 120 98
-4.298371 -32.773691 269.084120 160 120 98
-13.425927 60.000849 255.273485 91 74 77
-5.984695 -12.318762 265.405917 155 118 105
-10.335971 31.035584 257.378340 40 21 17
-4.269790 -28.601140 268.277550 162 125 101
-4.270505 -27.549633 268.063712 140 102 79
-5.983191 -10.101386 264.872622 154 120 104
-7.827963 10.292687 261.002469 143 110 90
-7.827963 10.292687 261.002469 143 110 90
-5.969104 -7.868771 264.457822 155 121 107
-3.391188 -29.893303 268.463087 74 38 29
-6.735087 7.129563 261.872339 102 78 82
2.023853 -16.979550 17.184582 142 113 113
-1.576733 -37.071323 232.053876 164 127 104
-6.707907 22.559118 254.731894 108 87 89
-6.375020 7.086221 258.261108 103 76 79
-4.264934 -12.728573 265.309143 152 115 95
-2.309367 -19.251487 268.299651 147 120 104
-4.910048 -14.247191 223.717332 107 80 72
-8.562645 35.251546 256.947756 41 22 17
7.688820 -112.119722 288.909960 193 148 100
-2.445013 -14.221247 265.310240 137 109 88
-4.059545 4.476344 261.165309 110 79 70
-9.699809 59.594584 251.773095 17 10 9
-4.209245 6.800155 261.542988 146 111 88
-6.918970 33.353865 256.335139 108 87 89
-2.375387 -8.882508 265.011430 147 120 104
-5.861707 28.411588 257.545781 129 97 83
-5.861707 28.411588 257.545781 129 97 83
-3.333837 5.432997 261.910963 49 27 22
4.140844 -66.203207 276.635909 170 126 109
-5.866436 30.364990 256.848240 128 95 81
0.779648 -31.977749 270.232201 146 107 95
-5.929525 33.873129 256.808519 126 91 82
-5.005127 27.032605 257.208705 35 20 17
-3.337302 12.278120 260.610056 52 28 23
7.919582 -92.648268 287.935495 168 125 107
-4.868546 28.169399 257.388163 94 67 48
-5.095202 35.358107 255.599236 156 114 94
-4.160095 26.695502 257.988000 51 35 26
-3.227337 20.728818 257.058716 81 54 48
-3.227337 20.728818 257.058716 81 54 48
5.759623 -64.423054 273.618817 27 16 17
-5.422760 43.481526 252.745223 109 85 84
-6.997550 59.869438 253.019738 61 25 14
-6.393104 60.583770 252.531004 181 115 92
-6.120214 57.551950 243.038726 61 25 14
-2.388137 30.911469 256.765127 121 95 77
10.059851 -72.940671 287.183619 173 127 109
11.137804 -76.202041 286.185360 175 128 113
13.412514 -50.467938 272.606945 69 55 67
14.725339 -49.324298 273.097849 50 35 50
13.545041 -35.046974 270.294499 57 42 55
10.827163 -25.390381 159.636557 69 55 67
10.558540 -14.189106 144.819176 57 42 55
432.736969 -20.536740 -295.988488 58 42 48
-234.010744 -119.176114 112.966549 255 232 225
-224.551415 -50.712156 103.965771 164 125 103
-221.372628 3.409116 97.842944 159 123 104
-221.372628 3.409116 97.842944 159 123 104
-218.455195 25.016758 94.430315 59 40 35
-109.142411 -12.025287 39.579621 68 43 31
-224.235415 -61.973208 105.988157 72 43 38
-223.456597 -50.324899 104.600370 89 56 41
443.237495 46.280703 -315.827894 169 132 119
-219.531178 10.850149 98.541963 170 126 109
-238.146687 -121.357799 120.664775 255 237 230
-219.475651 7.609057 99.114448 172 128 110
-221.261239 -24.104562 103.080356 160 114 99
-221.868706 -48.116145 105.613673 146 113 96
77.052927 -16.826265 -83.939242 198 132 114
-218.171287 -7.304972 100.544822 165 121 107
205.735183 0.445836 -155.330932 51 34 27
-215.772891 21.734282 97.194701 93 60 44
-217.525935 13.932222 99.246204 58 33 27
-217.525935 13.932222 99.246204 58 33 27
-217.428398 17.811523 99.092400 158 119 98
-217.361331 -5.987667 101.002800 99 64 52
-187.262547 6.986991 81.182009 74 45 29
-217.230558 14.536713 99.619615 144 106 91
-217.230558 14.536713 99.619615 144 106 91
-223.666286 -81.072301 111.941957 158 118 103
-222.963929 -84.699523 111.901510 56 40 46
-16.420348 -12.587428 -10.749998 65 30 11
-216.996002 11.885531 100.625765 65 38 22
-219.642615 -24.231076 105.339456 186 138 121
-216.651273 16.615143 100.180483 51 34 22
-222.205591 -30.197918 107.731211 184 137 117
429.147005 103.899384 -319.840097 191 145 125
417.931652 -12.780720 -303.079915 133 93 76
-172.702515 -12.310501 78.948206 163 127 110
416.804409 -54.241478 -299.837470 60 39 33
-104.784298 -14.417234 40.610817 74 41 25
420.332479 -51.865298 -302.830362 60 39 33
-215.473557 -10.776693 103.354204 100 67 48
417.772722 -46.676192 -302.085781 63 37 31
-220.987344 -77.786821 113.234651 130 80 55
-217.336106 -47.746602 108.871508 94 58 49
-217.349458 -48.912671 109.398377 124 78 65
147.326601 18.337153 -134.333789 214 168 150
-218.130350 -97.405857 114.343262 76 59 53
-218.130350 -97.405857 114.343262 76 59 53
-216.975141 -50.971532 110.018432 116 74 58
-217.502475 -27.401209 108.497977 145 110 94
-216.574907 -48.083884 110.006833 165 121 105
-211.792707 13.971764 102.176249 96 63 52
-216.954446 -28.696051 109.168172 68 40 32
-219.633460 -82.579899 115.771556 191 142 125
-211.838436 10.366428 102.876294 95 61 51
-216.513634 -44.105634 110.927057 45 27 16
-216.503167 -39.391604 110.852957 65 39 33
-211.499190 3.121733 104.203463 105 69 51
-218.680978 -81.481379 116.642892 128 78 56
-212.864542 -21.673314 107.909334 50 36 48
-212.864542 -21.673314 107.909334 50 36 48
-214.634967 -45.068622 111.470485 62 47 59
-216.362071 -87.048727 117.489207 144 107 88
-216.606379 -77.126235 116.938329 128 78 56
143.928707 10.390748 -134.458530 134 92 74
-208.615136 14.947435 104.372215 133 102 87
-209.258056 3.405219 106.546271 97 65 55
-209.225202 -7.038176 108.189642 83 56 47
-209.201145 0.471914 107.557225 146 111 95
-216.861773 -80.372554 121.055651 130 98 98
-206.265545 21.539170 105.352902 145 110 95
-206.060481 19.068746 105.551624 146 112 93
-222.505927 -103.014600 128.177011 133 96 78
-206.136775 14.238553 106.660342 141 106 92
-206.435823 7.474783 107.552338 94 63 59
-222.884560 -105.555904 129.288340 144 102 84
-205.878806 14.855790 107.223272 91 62 53
-205.789804 19.227934 106.802142 141 107 89
-207.811928 -94.215459 118.315327 90 67 50
-206.991220 -17.339049 111.469662 148 114 101
-205.836535 5.046813 108.854425 111 72 58
-211.069536 -84.094745 120.607567 141 104 89
-210.304308 -83.798546 120.149398 141 104 89
-205.874681 -2.237543 110.288179 111 74 60
-221.645522 -107.468235 130.884635 108 81 70
-205.590010 -93.887502 120.224905 84 63 50
-209.202409 -80.688149 122.149122 89 57 44
-202.951121 8.666278 110.368896 153 115 97
-202.394080 19.006301 109.090173 90 63 56
-202.452946 11.665436 110.495007 95 66 54
-225.887895 -108.612251 138.389003 25 16 12
-202.472210 11.629174 110.537553 95 66 54
-207.658815 -75.703400 122.333491 61 58 74
102.739727 23.598592 -112.989008 122 89 70
-199.943066 12.637170 111.639750 136 102 83
-201.066017 -9.104796 114.689326 167 125 107
-199.331498 19.217056 111.270916 39 26 19
-198.975611 17.365636 111.424446 37 24 15
-199.061060 11.934482 112.436152 46 31 19
-199.426937 -1.967244 114.155793 140 108 85
-250.399947 -128.074157 163.909638 171 127 116
-199.386203 -6.500503 114.899659 103 74 61
-197.897851 23.790736 111.341095 139 104 94
-204.448700 -81.456035 126.135671 52 55 66
-198.535299 16.523984 112.590086 132 96 85
-204.351425 -79.402274 126.261365 45 45 54
-199.047720 -6.117797 115.839005 45 28 22
-198.084080 9.301614 113.689721 123 88 79
-198.793030 -11.026851 117.042661 58 38 35
-203.045273 -77.067685 126.613748 75 65 76
-203.045273 -77.067685 126.613748 75 65 76
-202.868676 -82.308304 127.932084 157 119 104
-196.164680 28.574905 112.330616 138 103 91
-202.169299 -81.020629 128.097606 59 57 71
-268.335462 24.653645 169.808161 154 118 101
-196.369481 12.139701 115.478325 150 114 99
-199.936140 -61.589104 125.380313 151 113 99
-196.470654 4.677650 116.828251 154 118 100
-195.065486 -90.923864 125.469935 83 64 49
-196.993124 -14.446233 120.021045 97 65 49
-199.309921 -84.761870 128.739226 117 83 68
-196.362936 -9.589589 120.846713 163 120 104
-193.295920 23.957689 115.585053 89 58 53
-192.672217 24.069741 116.707253 87 57 49
-192.622411 16.805162 117.976844 87 57 51
-196.257079 -94.209832 131.987143 118 84 69
-193.020272 -1.331294 121.362412 93 59 53
-193.020272 -1.331294 121.362412 93 59 53
-192.680097 -0.130079 121.068120 106 68 55
-196.122420 -75.441521 131.619263 82 58 55
-189.150739 25.721914 118.938339 102 66 53
-189.090621 25.736687 118.897498 102 66 53
-189.147735 20.956266 119.981933 89 58 51
-189.063013 25.351024 119.676948 152 116 97
-189.736712 -1.486508 123.726249 154 120 105
-189.267135 -3.942303 124.525034 89 59 49
-187.082458 21.942493 121.613169 149 112 91
-172.547233 9.740305 112.570667 165 125 106
-186.725771 17.744018 122.480237 98 64 61
-186.725771 17.744018 122.480237 98 64 61
-186.697614 14.094286 123.196423 97 64 57
-191.369212 -84.477764 137.938333 138 99 88
-187.102914 -0.520526 125.604784 105 65 60
-190.535355 -79.291391 137.362206 62 60 73
-190.535355 -79.291391 137.362206 62 60 73
-186.506522 6.074733 125.111866 171 130 113
-186.506522 6.074733 125.111866 171 130 113
-186.359870 -2.572934 126.500988 176 133 115
-186.360919 -4.401337 126.859605 121 86 72
-186.295807 -2.065537 126.742220 161 117 99
-186.135983 -3.628375 127.039278 87 57 48
-185.117984 19.915871 126.011133 97 61 42
-185.082579 16.742322 126.701748 84 54 41
-184.854412 7.512894 128.874624 85 57 43
-184.854412 7.512894 128.874624 85 57 43
-184.161055 18.369506 127.295053 73 43 41
-185.900187 -54.093778 136.706424 138 99 86
-185.390925 -44.812125 135.419345 96 65 51
-184.041953 2.558658 129.844534 56 38 29
-183.588648 9.038892 129.215431 176 134 116
-182.871687 -3.423468 130.055046 126 82 65
-182.871687 -3.423468 130.055046 126 82 65
-182.491517 -3.788678 130.317116 162 125 111
-184.216940 -45.519662 136.461830 170 127 112
-185.525942 -61.213964 139.735222 108 81 85
-184.816408 -34.490761 136.239517 55 33 32
-182.501054 14.903390 128.911042 49 31 23
-181.453812 -90.116578 139.547849 77 56 44
-183.913267 -18.566547 134.299839 174 129 114
-182.340705 17.208260 129.006755 53 32 31
-183.694506 -36.507294 137.373531 170 131 117
-183.694506 -36.507294 137.373531 170 131 117
-183.694506 -36.507294 137.373531 170 131 117
508.117676 26.443338 -491.877556 89 57 43
-184.681296 -58.853710 140.951777 121 77 54
-183.734572 -39.736187 137.998879 108 80 73
-182.378566 -91.961807 143.137562 90 75 72
-183.573425 -82.252795 143.360865 134 97 79
-182.966733 -32.599878 137.493205 184 140 123
-180.695701 -11.702751 133.237517 108 76 68
-184.059644 -60.514683 141.736627 118 71 57
-183.386528 -57.194954 141.179526 192 145 131
177.140152 60.841882 -199.260259 131 94 75
100.410211 -23.371761 -120.586407 198 132 114
-181.616092 -45.908263 138.849151 133 91 80
-181.867325 -22.917558 136.564302 164 121 120
-179.602563 -11.961812 133.606255 91 77 86
-179.698539 21.921034 130.147994 74 24 15
-179.508972 19.641754 130.550849 47 30 27
-178.982317 -4.535854 133.360350 126 82 68
-179.074681 20.195979 130.806375 165 127 110
-182.461572 -69.594520 144.541109 122 75 57
-180.351043 -43.068850 139.662623 181 137 119
-178.726757 20.856148 131.101620 77 44 31
-148.160934 6.147739 104.615235 169 130 110
-178.518605 -4.264018 133.900833 165 125 109
-182.394409 -76.184332 145.758247 126 80 58
-179.245448 5.938651 133.601618 161 130 112
-180.590045 -26.154423 138.552034 80 54 40
-43.386832 -18.762060 14.073327 53 23 21
-178.279507 18.788806 132.107604 62 39 31
-179.377186 -42.303616 140.103817 124 85 73
-179.025078 -17.857465 137.634802 173 128 114
-179.025078 -17.857465 137.634802 173 128 114
-178.254700 4.720294 134.782159 69 46 39
-178.799093 -45.134830 141.058528 115 73 64
-177.135682 -4.830623 135.398626 156 118 107
-178.468180 -42.856368 141.043282 172 128 111
-178.468180 -42.856368 141.043282 172 128 111
-179.292321 -35.837105 141.062129 166 129 115
-179.292321 -35.837105 141.062129 166 129 115
-179.292321 -35.837105 141.062129 166 129 115
-178.348660 -44.649220 141.610909 159 125 108
-178.425479 -19.282053 138.981247 77 49 36
-178.425479 -19.282053 138.981247 77 49 36
-179.017663 -36.352238 141.682768 75 39 25
-176.288521 2.220173 134.770823 61 48 62
-176.288521 2.220173 134.770823 61 48 62
-58.283424 -28.221142 27.289459 165 121 108
-179.176378 -60.163999 145.666957 180 135 121
-188.372576 -101.056135 159.144676 105 57 46
-177.701759 -63.079745 144.908071 180 135 121
-187.949347 -98.308331 158.918738 166 129 105
-187.368929 -100.313568 158.824098 163 119 107
-188.008344 -102.585948 159.835553 144 100 89
-185.936248 -109.948230 158.936238 35 19 15
-176.599276 -39.493623 142.233181 61 44 55
-174.330044 11.785422 134.360731 166 129 115
-173.717403 19.686662 133.246291 106 66 51
-173.858702 12.405220 134.698200 111 71 56
-186.439061 -100.674069 160.339057 105 59 48
220.223141 20.280898 -228.472185 169 129 116
-173.992836 -3.012118 137.464976 107 70 60
-172.423875 16.870897 134.805870 156 118 104
